# This PCD file was generated using the MATLABÂ® pcwrite function
# from Computer Vision ToolboxÂ®.
# .PCD v.7 - Point Cloud Data file format
VERSION .7
FIELDS x y z
SIZE 4 4 4
TYPE F F F
COUNT 1 1 1
WIDTH 1677
HEIGHT 1
VIEWPOINT 0 0 0 1 0 0 0
POINTS 1677
DATA ascii
-0.924201 2.464894 -1.045273
-0.445401 2.019591 -1.075174
-0.817079 2.173263 -1.064459
-0.394397 1.801805 -1.085152
-0.596706 1.568840 -1.104049
-0.313899 1.453165 -1.097585
-0.487649 1.268676 -1.109261
-0.256596 1.210730 -1.125904
-0.407847 1.048704 -1.133067
-0.205034 0.985465 -1.122952
-0.334779 0.850596 -1.121382
-0.172312 0.838760 -1.118226
-1.132671 3.051292 0.859143
-0.989705 4.439141 1.044449
-1.049520 2.836837 0.576839
-0.918034 4.110234 0.654038
-1.100598 2.982458 0.383826
-0.945485 4.233502 0.411289
-1.204415 3.266596 0.239806
-5.258486 23.592249 1.125572
-1.325278 3.597526 0.088201
-3.236539 14.528776 0.000000
-1.326616 3.605024 -0.088376
-2.799986 12.578061 -0.599298
-1.373864 3.733180 -0.272960
-1.867377 8.398997 -0.784381
-2.589617 7.030414 -0.866796
-1.386263 6.242682 -0.894950
-1.880575 5.102005 -0.946804
-0.761286 3.449001 -1.000800
-1.498005 4.061248 -0.983417
-0.649364 2.952536 -1.027753
-0.914783 2.465931 -1.044340
-0.438701 2.021056 -1.075174
-0.809488 2.176102 -1.064459
-0.388420 1.803103 -1.085152
-0.591226 1.570913 -1.104049
-0.309078 1.454198 -1.097585
-0.483218 1.270370 -1.109261
-0.252580 1.211575 -1.125904
-0.404367 1.050050 -1.133067
-0.201765 0.986140 -1.122952
-0.331956 0.851702 -1.121382
-0.169383 0.839356 -1.118226
-1.131192 3.080161 0.866233
-0.965875 4.404499 1.035431
-1.048067 2.863528 0.581575
-0.944919 4.301600 0.684207
-1.098709 3.009586 0.386856
-0.939758 4.278104 0.415333
-1.202424 3.296546 0.241714
-5.166479 23.566551 1.123476
-1.323857 3.632651 0.088955
-3.188478 14.552196 0.000000
-1.314024 3.609632 -0.088376
-2.752327 12.570681 -0.598482
-1.351423 3.712180 -0.271061
-1.836986 8.400600 -0.783926
-2.564210 7.037077 -0.866508
-1.363937 6.245065 -0.894602
-1.861910 5.106225 -0.946372
-0.748734 3.449288 -1.000113
-1.483819 4.066452 -0.983417
-0.639552 2.957096 -1.028566
-0.906170 2.469109 -1.044340
-0.431644 2.022575 -1.075174
-0.801887 2.178915 -1.064459
-0.382124 1.804448 -1.085152
-0.586467 1.574911 -1.105443
-0.304405 1.457221 -1.099093
-0.478780 1.272049 -1.109261
-0.248712 1.214238 -1.127612
-0.400700 1.051456 -1.133067
-0.198321 0.986838 -1.122952
-0.328981 0.852855 -1.121382
-0.166452 0.839942 -1.118226
-1.128699 3.106788 0.872678
nan nan nan
-1.046440 2.890244 0.586311
nan nan nan
-1.096643 3.036736 0.389885
-0.934779 4.327581 0.419853
-1.198542 3.321832 0.243276
-5.085763 23.591764 1.123825
nan nan nan
-3.135031 14.551017 0.000000
-1.304809 3.623601 -0.088608
-2.705279 12.565563 -0.597784
-1.331685 3.698107 -0.269680
-1.807128 8.404528 -0.783698
-2.536259 7.036642 -0.865353
-1.341610 6.247367 -0.894253
-1.842401 5.108061 -0.945509
-0.736689 3.451881 -1.000113
-1.468787 4.069315 -0.982859
-0.629226 2.959311 -1.028566
-0.897545 2.472257 -1.044340
-0.424581 2.024070 -1.075174
-0.794276 2.181700 -1.064459
-0.375823 1.805771 -1.085152
-0.580966 1.576949 -1.105443
-0.299316 1.458275 -1.099093
-0.474337 1.273713 -1.109261
-0.244472 1.215099 -1.127612
-0.397027 1.052848 -1.133067
-0.195187 0.989130 -1.124842
-0.326002 0.853999 -1.121382
-0.163519 0.840518 -1.118226
-1.124396 3.128889 0.877834
nan nan nan
-1.044640 2.916982 0.591047
-4.700905 22.181345 3.545188
-1.095238 3.066245 0.393217
nan nan nan
-1.194498 3.347130 0.244838
-5.009592 23.638691 1.125223
-1.509522 4.232565 0.103520
-2.951703 13.935741 0.000000
-1.291312 3.625780 -0.088550
-2.658301 12.560270 -0.597085
-1.312062 3.683941 -0.268299
-1.776751 8.405913 -0.783242
-2.511681 7.045453 -0.865353
-1.319284 6.249590 -0.893905
-1.823731 5.112143 -0.945078
-0.724635 3.454431 -1.000113
-1.454573 4.074417 -0.982859
-0.618410 2.959174 -1.027753
-0.888910 2.475375 -1.044340
-0.417513 2.025540 -1.075174
-0.786656 2.184460 -1.064459
-0.369517 1.807071 -1.085152
-0.574744 1.577018 -1.104049
-0.294224 1.459311 -1.099093
-0.469888 1.275361 -1.109261
-0.240229 1.215945 -1.127612
-0.393349 1.054227 -1.133067
-0.191733 0.989805 -1.124842
-0.323019 0.855131 -1.121382
-0.160584 0.841084 -1.118226
-1.119953 3.150998 0.882990
nan nan nan
-1.041844 2.941430 0.595309
-4.618415 22.173439 3.541321
-1.093640 3.095782 0.396550
-4.932378 23.681614 2.308834
-1.190292 3.372440 0.246399
-2.827001 13.568510 0.644715
-1.513057 4.289653 0.104797
-2.801219 13.456437 0.000000
-1.277816 3.627908 -0.088492
-2.611392 12.554803 -0.596386
-1.292554 3.669684 -0.266918
-1.746387 8.407188 -0.782786
-2.485420 7.049493 -0.864776
-1.296457 6.249309 -0.893208
-1.805875 5.118477 -0.945078
-0.712089 3.454585 -0.999425
-1.439530 4.077173 -0.982301
-0.608077 2.961315 -1.027753
-0.880264 2.478463 -1.044340
-0.410440 2.026985 -1.075174
-0.778263 2.185058 -1.063404
-0.363207 1.808350 -1.085152
-0.569235 1.579015 -1.104049
-0.289128 1.460329 -1.099093
-0.465433 1.276993 -1.109261
-0.235639 1.214983 -1.125904
-0.389667 1.055594 -1.133067
-0.188277 0.990468 -1.124842
-0.320032 0.856254 -1.121382
-0.157380 0.840184 -1.116211
-1.113763 3.168557 0.886857
-2.769976 13.555060 3.193658
-1.039704 2.968210 0.600046
-4.536038 22.165228 3.537453
-1.091029 3.123001 0.399579
-4.838213 23.642607 2.303363
-1.186748 3.400115 0.248134
-2.789629 13.627228 0.647044
-1.489829 4.271314 0.104216
-2.755732 13.473481 0.000000
-1.261850 3.622908 -0.088260
-2.565054 12.551607 -0.595804
-1.262478 3.624724 -0.263292
-1.716036 8.408355 -0.782330
-2.459979 7.055781 -0.864487
-1.273648 6.248944 -0.892511
-1.787185 5.122425 -0.944646
-0.700026 3.457050 -0.999425
-1.424484 4.079873 -0.981743
-0.597271 2.961102 -1.026940
-0.871607 2.481521 -1.044340
-0.403362 2.028405 -1.075174
-0.770631 2.187761 -1.063404
-0.356892 1.809607 -1.085152
-0.563020 1.579039 -1.102655
-0.284406 1.463287 -1.100601
-0.460973 1.278610 -1.109261
-0.231397 1.215798 -1.125904
-0.385980 1.056948 -1.133067
-0.185114 0.992729 -1.126732
-0.317041 0.857366 -1.121382
-0.154446 0.840728 -1.116211
-1.107465 3.186112 0.890724
-2.726954 13.586141 3.198731
-1.037389 2.995009 0.604781
-4.457180 22.173662 3.536293
-1.089866 3.154930 0.403214
-4.713989 23.451962 2.283144
-1.183840 3.430164 0.250043
-2.732207 13.587916 0.644715
-1.216183 3.527637 0.085822
-2.699336 13.436448 0.000000
-1.216582 3.532787 -0.085938
-2.518279 12.545794 -0.595105
-1.226222 3.560739 -0.258285
-1.686186 8.411853 -0.782103
-2.433714 7.059630 -0.863910
-1.251342 6.250924 -0.892163
-1.769294 5.128632 -0.944646
-0.687954 3.459472 -0.999425
-1.410234 4.084820 -0.981743
-0.586931 2.963169 -1.026940
-0.862177 2.482358 -1.043406
-0.395858 2.027631 -1.074006
-0.762989 2.190438 -1.063404
-0.350169 1.808736 -1.083866
-0.557504 1.580994 -1.102655
-0.279297 1.464271 -1.100601
-0.455859 1.278407 -1.107655
-0.227151 1.216599 -1.125904
-0.382288 1.058289 -1.133067
-0.181648 0.993369 -1.126732
-0.314047 0.858467 -1.121382
-0.151253 0.839804 -1.114196
-1.101057 3.203661 0.894592
-2.675277 13.574068 3.193658
-1.034103 3.019507 0.609044
-4.375450 22.167276 3.532811
-1.087688 3.184541 0.406547
-4.628244 23.448740 2.281241
-1.181543 3.462593 0.252125
nan nan nan
-1.199014 3.517670 0.085474
-2.651934 13.443336 0.000000
-1.198593 3.520454 -0.085532
-2.471575 12.539805 -0.594406
-1.191235 3.498906 -0.253451
-1.655852 8.412801 -0.781647
-2.408255 7.065732 -0.863621
-1.228561 6.250396 -0.891466
-1.751381 5.134777 -0.944646
-0.676333 3.464212 -1.000113
-1.395178 4.087412 -0.981185
-0.576134 2.962878 -1.026127
-0.853506 2.485352 -1.043406
-0.388778 2.029001 -1.074006
-0.754598 2.190946 -1.062349
-0.343853 1.809948 -1.083866
-0.551296 1.580972 -1.101261
-0.274184 1.465237 -1.100601
-0.451394 1.279991 -1.107655
-0.222579 1.215588 -1.124195
-0.378592 1.059617 -1.133067
-0.177895 0.992386 -1.124842
-0.311048 0.859558 -1.121382
-0.148321 0.840327 -1.114196
-1.093762 3.218917 0.897814
-2.627416 13.580933 3.193094
-1.031447 3.046344 0.613780
-4.294757 22.165442 3.530104
-1.086113 3.216525 0.410182
-4.542106 23.442764 2.279100
-1.179035 3.495047 0.254208
-4.560193 23.536190 1.116372
-1.187528 3.524202 0.085532
-2.623987 13.550690 0.000000
-1.187096 3.526984 -0.085590
-2.424945 12.533646 -0.593708
-1.159883 3.446326 -0.249307
-1.626004 8.416085 -0.781419
-2.381989 7.069390 -0.863044
-1.205800 6.249784 -0.890770
-1.732658 5.138526 -0.944215
-0.664237 3.466552 -1.000113
-1.380902 4.092257 -0.981185
-0.565788 2.964871 -1.026127
-0.844826 2.488317 -1.043406
-0.381693 2.030345 -1.074006
-0.746946 2.193567 -1.062349
-0.337533 1.811137 -1.083866
-0.545774 1.582887 -1.101261
-0.268711 1.464223 -1.099093
-0.446923 1.281559 -1.107655
-0.218334 1.216358 -1.124195
-0.374891 1.060932 -1.133067
-0.174430 0.993001 -1.124842
-0.308046 0.860638 -1.121382
-0.145387 0.840840 -1.114196
-1.087915 3.238740 0.902326
-2.578632 13.582842 3.191403
-1.027835 3.070870 0.618042
-4.213671 22.160885 3.527010
-1.084328 3.248537 0.413817
-4.456067 23.436474 2.276959
-1.177104 3.529891 0.256463
-4.475211 23.537243 1.115673
-1.177593 3.535438 0.085706
-2.588794 13.623625 0.000000
-1.172406 3.523994 -0.085416
-2.377922 12.524859 -0.592892
-1.146268 3.445622 -0.248962
-1.595691 8.416818 -0.780963
-2.355726 7.072949 -0.862467
-1.183057 6.249090 -0.890073
-1.713931 5.142207 -0.943783
-0.652132 3.468849 -1.000113
-1.366609 4.097053 -0.981185
-0.555436 2.966828 -1.026127
-0.836135 2.491251 -1.043406
-0.374205 2.029491 -1.072837
-0.739284 2.196161 -1.062349
-0.331209 1.812304 -1.083866
-0.540245 1.584783 -1.101261
-0.263598 1.465152 -1.099093
-0.442447 1.283111 -1.107655
-0.214087 1.217112 -1.124195
-0.371185 1.062234 -1.133067
-0.170962 0.993604 -1.124842
-0.304520 0.860256 -1.119415
-0.142451 0.841342 -1.114196
-1.082706 3.260853 0.907482
-2.529422 13.582182 3.189149
-1.024838 3.097739 0.622778
-4.133121 22.158461 3.524302
-1.082332 3.280575 0.417453
-4.338201 23.258610 2.258167
-1.174945 3.564764 0.258719
-4.390735 23.540447 1.115091
-1.173859 3.565635 0.086344
-2.494992 13.384348 0.000000
-1.171050 3.561297 -0.086229
-2.330990 12.515897 -0.592077
-1.132672 3.444865 -0.248617
-1.565846 8.419888 -0.780735
-2.330246 7.078771 -0.862178
-1.160785 6.250748 -0.889725
-1.695199 5.145820 -0.943351
-0.639585 3.468740 -0.999425
-1.351535 4.099484 -0.980627
-0.545076 2.968749 -1.026127
-0.828166 2.496355 -1.044340
-0.367119 2.030785 -1.072837
-0.730895 2.196578 -1.061294
-0.324881 1.813449 -1.083866
-0.535376 1.588624 -1.102655
-0.258139 1.464099 -1.097585
-0.437966 1.284647 -1.107655
-0.209837 1.217852 -1.124195
-0.367475 1.063523 -1.133067
-0.167493 0.994194 -1.124842
-0.301515 0.861314 -1.119415
-0.139513 0.841834 -1.114196
-1.078110 3.285263 0.913283
-2.479810 13.578949 3.186330
-1.021665 3.124623 0.627514
-4.052639 22.155746 3.521595
-1.080126 3.312639 0.421088
-4.246245 23.214855 2.252457
-1.170234 3.592552 0.260454
nan nan nan
-1.170703 3.598225 0.087040
-2.441968 13.358544 0.000000
-1.169447 3.598634 -0.087041
-2.284598 12.509217 -0.591378
-1.129909 3.477254 -0.250688
-1.535554 8.420403 -0.780279
-2.303984 7.082139 -0.861601
-1.138074 6.249889 -0.889028
-1.675700 5.147024 -0.942488
-0.627047 3.468586 -0.998737
-1.337217 4.104177 -0.980627
-0.534293 2.968307 -1.025313
-0.819447 2.499230 -1.044340
-0.360028 2.032054 -1.072837
-0.723224 2.199116 -1.061294
-0.318549 1.814572 -1.083866
-0.529827 1.590483 -1.102655
-0.253027 1.464991 -1.097585
-0.433479 1.286168 -1.107655
-0.205585 1.218577 -1.124195
-0.363195 1.063160 -1.131265
-0.164022 0.994773 -1.124842
-0.298507 0.862361 -1.119415
-0.136573 0.842316 -1.114196
-1.074851 3.314275 0.920372
-2.431109 13.580330 3.184639
-1.019830 3.156193 0.633197
-3.972226 22.152739 3.518888
-1.077708 3.344726 0.424723
-4.163428 23.219740 2.251506
-1.164578 3.617976 0.262016
-2.384490 13.293100 0.628177
-1.167334 3.630836 0.087737
-2.384750 13.307926 0.000000
-1.168364 3.638381 -0.087911
-2.237841 12.499907 -0.590563
-1.124640 3.502544 -0.252242
-1.505277 8.420811 -0.779824
-2.278488 7.087775 -0.861312
-1.115817 6.251387 -0.888680
-1.656969 5.150498 -0.942057
-0.614936 3.470754 -0.998737
-1.322134 4.106500 -0.980069
-0.523928 2.970154 -1.025313
-0.810718 2.502075 -1.044340
-0.352932 2.033299 -1.072837
-0.715543 2.201627 -1.061294
-0.311852 1.813560 -1.082580
-0.523620 1.590353 -1.101261
-0.247912 1.465865 -1.097585
-0.428986 1.287674 -1.107655
-0.201330 1.219288 -1.124195
-0.359482 1.064422 -1.131265
-0.160548 0.995339 -1.124842
-0.295495 0.863398 -1.119415
-0.133632 0.842788 -1.114196
-1.072141 3.345603 0.928107
-2.382429 13.581535 3.182948
-1.018535 3.190126 0.639354
-3.892311 22.151875 3.516567
-1.075080 3.376837 0.428358
-4.082351 23.234131 2.251506
-1.166333 3.667167 0.265313
-2.340234 13.313642 0.628760
-1.159203 3.649178 0.088085
-2.333962 13.291546 0.000000
-1.154899 3.640055 -0.087853
-2.191177 12.490425 -0.589748
-1.119209 3.527840 -0.253796
-1.475016 8.421110 -0.779368
-2.252228 7.090953 -0.860735
-1.093563 6.252805 -0.888331
-1.638233 5.153903 -0.941625
-0.602817 3.472879 -0.998737
-1.307052 4.108768 -0.979510
-0.513557 2.971964 -1.025313
-0.801270 2.502682 -1.043406
-0.345833 2.034518 -1.072837
-0.708549 2.206269 -1.062349
-0.305520 1.814637 -1.082580
-0.518065 1.592171 -1.101261
-0.242471 1.464754 -1.096078
-0.423886 1.287344 -1.106050
-0.197359 1.221785 -1.125904
-0.355211 1.064027 -1.129464
-0.157073 0.995894 -1.124842
-0.292479 0.864424 -1.119415
-0.130690 0.843249 -1.114196
-1.070687 3.381557 0.937130
-2.334182 13.584968 3.181821
-1.016276 3.221748 0.645037
-3.812032 22.148287 3.513860
-1.072241 3.408970 0.431994
-3.997005 23.223711 2.249127
-1.193228 3.797292 0.274510
-2.295440 13.331573 0.629226
-1.153207 3.674660 0.088607
-2.285012 13.284829 0.000000
-1.141437 3.641680 -0.087795
-2.142494 12.468462 -0.588350
-1.112868 3.550760 -0.255177
-1.444771 8.421299 -0.778912
-2.226718 7.096402 -0.860446
-1.070896 6.251704 -0.887634
-1.619493 5.157242 -0.941194
-0.590289 3.472593 -0.998049
-1.291969 4.110982 -0.978952
-0.502787 2.971407 -1.024500
-0.792529 2.505464 -1.043406
-0.338729 2.035713 -1.072837
-0.700843 2.208729 -1.062349
-0.299184 1.815693 -1.082580
-0.512505 1.593970 -1.101261
-0.237357 1.465591 -1.096078
-0.419389 1.288816 -1.106050
-0.193093 1.222467 -1.125904
-0.351494 1.065261 -1.129464
-0.153596 0.996436 -1.124842
-0.289460 0.865440 -1.119415
-0.127745 0.843700 -1.114196
-1.068272 3.415237 0.945509
-2.288765 13.605043 3.184639
-1.018932 3.269793 0.654035
-3.732236 22.146845 3.511539
-1.069929 3.443493 0.435932
-3.913435 23.222797 2.247700
-1.161446 3.741899 0.270172
-2.270872 13.470022 0.635398
-1.144822 3.692984 0.088955
-2.234478 13.268071 0.000000
-1.132422 3.657578 -0.088085
-2.101027 12.488178 -0.588933
-1.107119 3.576061 -0.256731
-1.414543 8.421381 -0.778456
-2.200461 7.099388 -0.859869
-1.048658 6.252962 -0.887286
-1.600751 5.160512 -0.940762
-0.578164 3.474632 -0.998049
-1.276888 4.113140 -0.978394
-0.492412 2.973145 -1.024500
-0.783084 2.506002 -1.042473
-0.331621 2.036883 -1.072837
-0.693129 2.211161 -1.062349
-0.292844 1.816726 -1.082580
-0.506306 1.593772 -1.099867
-0.232239 1.466411 -1.096078
-0.414888 1.290272 -1.106050
-0.188825 1.223133 -1.125904
-0.347774 1.066481 -1.129464
-0.150117 0.996966 -1.124842
-0.286927 0.867908 -1.121382
-0.124800 0.844141 -1.114196
-1.064921 3.446633 0.953243
-2.243237 13.624966 3.187458
-1.024160 3.327278 0.664928
-3.650086 22.130493 3.506897
-1.067388 3.478041 0.439870
-3.829110 23.216675 2.245797
-1.128600 3.681563 0.265487
-2.224245 13.480332 0.635514
-1.139256 3.720851 0.089536
-2.188150 13.275789 0.000000
-1.115253 3.647171 -0.087737
-2.060260 12.512685 -0.589748
-1.100477 3.598980 -0.258112
-1.384332 8.421353 -0.778001
-2.174939 7.104651 -0.859580
-1.026425 6.254141 -0.886938
-1.582005 5.163713 -0.940331
-0.566032 3.476629 -0.998049
-1.261807 4.115242 -0.977836
-0.482031 2.974845 -1.024500
-0.773646 2.506505 -1.041540
-0.324509 2.038028 -1.072837
-0.685406 2.213567 -1.062349
-0.286501 1.817737 -1.082580
-0.500739 1.595530 -1.099867
-0.226818 1.465242 -1.094570
-0.410382 1.291713 -1.106050
-0.184286 1.221980 -1.124195
-0.344585 1.069337 -1.131265
-0.146636 0.997484 -1.124842
-0.283895 0.868904 -1.121382
-0.121852 0.844571 -1.114196
-1.061970 3.477862 0.960977
-2.198430 13.634734 3.188021
-1.044628 3.433967 0.685766
-3.570380 22.103462 3.500709
-1.065232 3.512427 0.443808
-3.753375 23.211390 2.244132
-1.115660 3.682899 0.265313
-2.191072 13.559130 0.638892
-1.147220 3.791578 0.091160
-2.143716 13.280504 0.000000
-1.121187 3.708062 -0.089130
-2.021932 12.539172 -0.590680
-1.095675 3.623901 -0.259666
-1.356003 8.423440 -0.777773
-2.151168 7.106697 -0.859003
-1.005287 6.255066 -0.886589
-1.565060 5.166302 -0.939899
-0.554123 3.476113 -0.997361
-1.248872 4.119186 -0.977836
-0.472163 2.976427 -1.024500
-0.765768 2.508923 -1.041540
-0.317749 2.039093 -1.072837
-0.677783 2.213543 -1.061294
-0.280795 1.820796 -1.083866
-0.495724 1.597095 -1.099867
-0.222207 1.465948 -1.094570
-0.406322 1.292995 -1.106050
-0.180446 1.222553 -1.124195
-0.341037 1.070474 -1.131265
-0.143273 0.996320 -1.122952
-0.281164 0.869792 -1.121382
-0.119198 0.844950 -1.114196
-1.058211 3.509294 0.968711
nan nan nan
-1.063780 3.541013 0.706604
-3.485887 22.069439 3.493361
-1.062241 3.547022 0.447747
-3.664007 23.197950 2.241515
-1.102082 3.684382 0.265140
-2.152294 13.620962 0.641454
-1.128959 3.778800 0.090754
-2.105521 13.339766 0.000000
-1.097563 3.678622 -0.088318
-1.981257 12.565888 -0.591611
-1.089531 3.651787 -0.261393
-1.325819 8.423203 -0.777317
-2.123683 7.109775 -0.858426
-0.982680 6.253646 -0.885893
-1.545408 5.169645 -0.939468
-0.541617 3.475651 -0.996673
-1.233066 4.121402 -0.977278
-0.461771 2.978057 -1.024500
-0.755896 2.509492 -1.040606
-0.310629 2.040190 -1.072837
-0.669665 2.216012 -1.061294
-0.274438 1.821765 -1.083866
-0.489867 1.598902 -1.099867
-0.216839 1.466751 -1.094570
-0.401580 1.294476 -1.106050
-0.175964 1.223206 -1.124195
-0.337299 1.071658 -1.131265
-0.139620 0.996838 -1.122952
-0.277500 0.869349 -1.119415
-0.116101 0.845381 -1.114196
-1.053627 3.540925 0.976445
nan nan nan
-1.064080 3.589596 0.715603
-3.401589 22.060097 3.489879
-1.059100 3.584203 0.451988
-3.578958 23.211226 2.241515
-1.087863 3.686006 0.264966
-2.108442 13.668251 0.643317
-1.095332 3.718387 0.089187
-2.088941 13.557420 0.000000
-1.074878 3.651458 -0.087563
-1.935562 12.575536 -0.591728
-1.084609 3.684460 -0.263465
-1.292712 8.423310 -0.776861
-2.096907 7.115129 -0.858137
-0.958287 6.254926 -0.885544
-1.526450 5.175274 -0.939468
-0.527908 3.475329 -0.995986
-1.217952 4.125894 -0.977278
-0.450333 2.979809 -1.024500
-0.746693 2.512246 -1.040606
-0.302793 2.041368 -1.072837
-0.660888 2.216281 -1.060239
-0.267441 1.822806 -1.083866
-0.484004 1.600686 -1.099867
-0.211205 1.467573 -1.094570
-0.396833 1.295939 -1.106050
-0.171266 1.223872 -1.124195
-0.333181 1.072945 -1.131265
-0.135792 0.997367 -1.122952
-0.274160 0.870408 -1.119415
-0.112810 0.844334 -1.112181
-1.050132 3.574703 0.984824
nan nan nan
-1.061909 3.628620 0.722707
-3.322726 22.059626 3.487946
-1.054244 3.614078 0.455320
-3.491987 23.184202 2.237709
-1.074291 3.687386 0.264792
-2.089339 13.865677 0.652284
-1.071799 3.683609 0.088259
-2.042347 13.569573 0.000000
nan nan nan
-1.890175 12.572336 -0.591262
-1.081506 3.721747 -0.265882
-1.263666 8.420163 -0.776178
-2.070669 7.117636 -0.857560
-0.937173 6.255621 -0.885196
-1.507686 5.178207 -0.939036
-0.516381 3.477060 -0.995986
-1.203543 4.130120 -0.977278
-0.440449 2.981285 -1.024500
-0.738574 2.517062 -1.041540
-0.296022 2.042361 -1.072837
-0.653148 2.218574 -1.060239
-0.261395 1.823683 -1.083866
-0.478414 1.602366 -1.099867
-0.206338 1.468266 -1.094570
-0.392307 1.297316 -1.106050
-0.167207 1.224434 -1.124195
-0.329621 1.074044 -1.131265
-0.132484 0.997812 -1.122952
-0.271272 0.871312 -1.119415
-0.109863 0.844722 -1.112181
-1.047088 3.610820 0.993847
-1.854609 12.635434 2.947341
-1.054016 3.648810 0.726022
-3.244267 22.061314 3.486398
-1.051945 3.653500 0.459864
-3.412123 23.203636 2.238423
-1.060722 3.688718 0.264619
-2.034754 13.830882 0.650305
-1.117013 3.889077 0.093133
-1.995695 13.581568 0.000000
-3.765431 13.106038 -0.315785
-1.845192 12.571445 -0.590913
-1.078156 3.759057 -0.268299
-1.232825 8.414670 -0.775266
-2.045125 7.122434 -0.857271
-0.914974 6.256405 -0.884847
-1.489601 5.183438 -0.939036
-0.503897 3.476462 -0.995298
-1.188444 4.131954 -0.976720
-0.430039 2.982805 -1.024500
-0.729784 2.519625 -1.041540
-0.288891 2.043381 -1.072837
-0.645400 2.220841 -1.060239
-0.255027 1.824584 -1.083866
-0.472817 1.604026 -1.099867
-0.201478 1.470953 -1.096078
-0.387776 1.298678 -1.106050
-0.163168 1.226820 -1.125904
-0.325363 1.073531 -1.129464
-0.129000 0.998268 -1.122952
-0.268229 0.872254 -1.119415
-0.106913 0.845101 -1.112181
-1.040473 3.635349 0.999648
nan nan nan
-1.040598 3.650106 0.725548
-3.166888 22.070059 3.486012
-1.035786 3.645216 0.458350
-3.339938 23.276991 2.244370
-1.046474 3.687600 0.264272
-1.960587 13.657445 0.641803
-1.078842 3.806402 0.091044
nan nan nan
-3.708744 13.080631 -0.314856
-1.800591 12.572865 -0.590680
-1.075239 3.798787 -0.270888
-1.202390 8.411529 -0.774582
-2.019573 7.127141 -0.856983
-0.892781 6.257110 -0.884499
-1.470826 5.186238 -0.938605
-0.491759 3.478200 -0.995298
-1.174013 4.136077 -0.976720
-0.419625 2.984288 -1.024500
-0.721624 2.524386 -1.042473
-0.281756 2.044377 -1.072837
-0.637644 2.223080 -1.060239
-0.248657 1.825463 -1.083866
-0.467799 1.607658 -1.101261
-0.196342 1.471648 -1.096078
-0.383240 1.300024 -1.106050
-0.158885 1.227382 -1.125904
-0.321614 1.074660 -1.129464
-0.125315 0.997089 -1.121061
-0.265183 0.873185 -1.119415
-0.103963 0.845469 -1.112181
-1.026461 3.634310 0.998359
nan nan nan
-1.024518 3.641904 0.723180
-3.089146 22.076086 3.485238
-1.021041 3.641643 0.457441
-3.268315 23.357519 2.251030
-1.032248 3.686428 0.263925
-1.894919 13.535598 0.635747
-1.024396 3.663345 0.087505
-1.839282 13.154445 0.000000
nan nan nan
-1.755657 12.571653 -0.590330
-1.071386 3.836141 -0.273306
-1.171992 8.408277 -0.773899
-1.993343 7.129364 -0.856405
-0.870594 6.257736 -0.884151
-1.452049 5.188969 -0.938173
-0.479615 3.479896 -0.995298
-1.158910 4.137804 -0.976162
-0.408886 2.983392 -1.023687
-0.712807 2.526890 -1.042473
-0.274327 2.043158 -1.071668
-0.629880 2.225292 -1.060239
-0.242283 1.826320 -1.083866
-0.462184 1.609282 -1.101261
-0.191204 1.472324 -1.096078
-0.378700 1.301354 -1.106050
-0.154600 1.227929 -1.125904
-0.317860 1.075776 -1.129464
-0.121834 0.997520 -1.121061
-0.262133 0.874105 -1.119415
-0.101011 0.845826 -1.112181
-1.012468 3.633219 0.997070
-1.699230 12.485223 2.907886
-1.009168 3.635998 0.721286
-3.011734 22.084288 3.484851
-1.006334 3.638011 0.456532
-3.184746 23.353991 2.249603
-1.018042 3.685202 0.263578
-1.845299 13.524809 0.634932
nan nan nan
-1.807175 13.262349 0.000000
-3.717809 13.469982 -0.323618
-1.711091 12.572756 -0.590097
-1.065956 3.868706 -0.275377
-1.141631 8.404916 -0.773215
-1.967784 7.133886 -0.856117
-0.848413 6.258283 -0.883802
-1.433927 5.194006 -0.938173
-0.467465 3.481548 -0.995298
-1.144459 4.141824 -0.976162
-0.398470 2.984801 -1.023687
-0.703983 2.529362 -1.042473
-0.267193 2.044103 -1.071668
-0.622108 2.227478 -1.060239
-0.235635 1.825028 -1.082580
-0.456564 1.610885 -1.101261
-0.186310 1.474961 -1.097585
-0.374155 1.302667 -1.106050
-0.150312 1.228461 -1.125904
-0.314103 1.076879 -1.129464
-0.118351 0.997939 -1.121061
-0.259080 0.875015 -1.119415
-0.098223 0.847644 -1.114196
-0.999138 3.634402 0.996426
-1.657556 12.505565 2.911268
-0.994520 3.632397 0.719865
-2.932677 22.079977 3.482531
-0.992319 3.636714 0.455926
-3.102551 23.360029 2.249127
-1.003858 3.683922 0.263231
-1.795449 13.511363 0.634000
-3.686656 13.522585 0.324603
-1.774009 13.367710 0.000000
-3.668139 13.473231 -0.323386
-1.665555 12.566274 -0.589515
-1.060968 3.903685 -0.277622
-1.111960 8.406381 -0.772987
-1.941564 7.135919 -0.855539
-0.826239 6.258751 -0.883454
-1.415140 5.196604 -0.937741
-0.455309 3.483159 -0.995298
-1.129352 4.143443 -0.975604
-0.387745 2.983829 -1.022874
-0.694533 2.529569 -1.041540
-0.260056 2.045023 -1.071668
-0.614329 2.229635 -1.060239
-0.228999 1.823712 -1.081295
-0.450938 1.612469 -1.101261
-0.181161 1.475603 -1.097585
-0.369606 1.303966 -1.106050
-0.145812 1.227165 -1.124195
-0.310826 1.079633 -1.131265
-0.114867 0.998346 -1.121061
-0.256462 0.877393 -1.121382
-0.095263 0.847982 -1.114196
-0.994050 3.665838 1.004160
-1.634119 12.668294 2.947905
-0.981834 3.635847 0.719865
-2.851472 22.058233 3.477502
-0.984790 3.659323 0.458350
-3.018759 23.353441 2.247462
-0.989046 3.680179 0.262710
-1.761711 13.621571 0.638892
-6.362370 23.655115 0.567910
-1.723818 13.346546 0.000000
-3.631463 13.524573 -0.324315
-1.620404 12.562104 -0.589049
-1.056396 3.941085 -0.280039
-1.082292 8.407743 -0.772759
-1.915355 7.137856 -0.854962
-0.804073 6.259142 -0.883106
-1.396351 5.199134 -0.937310
-0.443148 3.484727 -0.995298
-1.114248 4.145007 -0.975045
-0.377328 2.985164 -1.022874
-0.685699 2.531977 -1.041540
-0.253185 2.048112 -1.072837
-0.606543 2.231766 -1.060239
-0.222631 1.824500 -1.081295
-0.445306 1.614033 -1.101261
-0.175776 1.474245 -1.096078
-0.364531 1.303403 -1.104445
-0.141527 1.227667 -1.124195
-0.307056 1.080711 -1.131265
-0.111381 0.998741 -1.121061
-0.253398 0.878283 -1.121382
-0.092303 0.848310 -1.114196
-0.989400 3.697110 1.011894
-1.597254 12.714725 2.957487
-0.969772 3.639083 0.719865
-2.774610 22.038162 3.472861
-0.977758 3.681753 0.460773
-2.943200 23.345526 2.245797
-0.974914 3.676208 0.262190
-1.721829 13.669458 0.640871
-6.278762 23.656759 0.567446
-1.675811 13.322423 0.000000
-3.633184 13.702600 -0.328319
-1.577183 12.555018 -0.588467
-1.049766 3.966080 -0.281593
-1.054096 8.408814 -0.772531
-1.891647 7.139038 -0.854385
-0.783006 6.259318 -0.882757
-1.379379 5.201116 -0.936878
-0.431590 3.486177 -0.995298
-1.100594 4.146132 -0.974487
-0.367426 2.986399 -1.022874
-0.677741 2.534119 -1.041540
-0.246392 2.048940 -1.072837
-0.599528 2.233661 -1.060239
-0.216330 1.823099 -1.080009
-0.440234 1.615424 -1.101261
-0.170911 1.472810 -1.094570
-0.360435 1.304542 -1.104445
-0.137471 1.226291 -1.122487
-0.303470 1.081724 -1.131265
-0.108243 0.999086 -1.121061
-0.250638 0.879074 -1.121382
-0.089788 0.850068 -1.116211
-0.990044 3.754422 1.026718
-1.557999 12.780940 2.971578
-0.965802 3.678220 0.726969
-2.690525 22.021215 3.468607
-0.971184 3.711716 0.464106
-2.851427 23.339361 2.244132
-0.959537 3.672519 0.261669
-1.726489 14.124356 0.661950
-3.756136 14.378377 0.344216
-1.641491 13.447595 0.000000
-3.616549 13.854286 -0.331626
-1.529943 12.550800 -0.588001
-1.049658 4.027995 -0.285736
-1.021501 8.410329 -0.772304
-1.862966 7.141443 -0.853807
-0.758669 6.259821 -0.882409
-1.358775 5.203991 -0.936447
-0.418200 3.487809 -0.995298
-1.084666 4.150327 -0.974487
-0.355679 2.985440 -1.022061
-0.667413 2.534461 -1.040606
-0.238522 2.049871 -1.072837
-0.590947 2.235946 -1.060239
-0.209570 1.826046 -1.081295
-0.434028 1.617103 -1.101261
-0.165004 1.473483 -1.094570
-0.355423 1.305916 -1.104445
-0.132547 1.226833 -1.122487
-0.299315 1.082881 -1.131265
-0.104232 0.999513 -1.121061
-0.247107 0.880073 -1.121382
-0.086523 0.850406 -1.116211
-0.984853 3.788241 1.035097
-1.517950 12.825001 2.980597
-0.961591 3.714833 0.733599
-2.611605 22.013302 3.465899
-0.957600 3.712681 0.463803
-2.767890 23.331875 2.242466
-0.943594 3.663772 0.260801
-1.737731 14.641159 0.685941
-3.712180 14.405273 0.344564
-1.615991 13.634478 0.000000
-3.583125 13.924915 -0.333019
-1.485250 12.548623 -0.587652
-1.038079 4.041296 -0.286427
-0.993023 8.408725 -0.771848
-1.837407 7.145498 -0.853519
-0.737618 6.259843 -0.882061
-1.339986 5.206318 -0.936015
-0.406632 3.489177 -0.995298
-1.069563 4.151729 -0.973929
-0.345777 2.986603 -1.022061
-0.658562 2.536775 -1.040606
-0.231724 2.050651 -1.072837
-0.582565 2.235803 -1.059184
-0.203513 1.826731 -1.081295
-0.427846 1.616603 -1.099867
-0.160116 1.474022 -1.094570
-0.350362 1.305299 -1.102839
-0.128478 1.227266 -1.122487
-0.295722 1.083868 -1.131265
-0.100916 0.999853 -1.121061
-0.244187 0.880888 -1.121382
-0.083414 0.849230 -1.114196
-1.011298 3.946063 1.077635
-1.472618 12.825382 2.979470
-0.961394 3.768108 0.743545
-2.534748 22.022284 3.465899
-0.943409 3.711191 0.463197
-2.684439 23.324085 2.240801
-0.930799 3.667043 0.260801
-1.687183 14.652099 0.686174
-3.615700 14.236470 0.340212
-1.558692 13.555591 0.000000
-3.534496 13.937338 -0.333019
-1.441154 12.551250 -0.587535
-1.034396 4.085990 -0.289362
-0.963383 8.409667 -0.771620
-1.811232 7.147054 -0.852942
-0.715762 6.262380 -0.882061
-1.320591 5.206191 -0.935152
-0.394182 3.488186 -0.994610
-1.054463 4.153076 -0.973371
-0.335349 2.987792 -1.022061
-0.649703 2.539058 -1.040606
-0.224564 2.051447 -1.072837
-0.574757 2.237823 -1.059184
-0.197363 1.829562 -1.082580
-0.422200 1.618086 -1.099867
-0.154765 1.472589 -1.093062
-0.345803 1.306514 -1.102839
-0.124373 1.229523 -1.124195
-0.291937 1.084893 -1.131265
-0.097426 1.000199 -1.121061
-0.241111 0.881735 -1.121382
-0.080450 0.849516 -1.114196
-1.044360 4.134554 1.128552
-1.452585 13.053152 3.031326
-0.956036 3.802384 0.749702
-2.457587 22.028543 3.465513
-0.929844 3.712055 0.462894
-2.601077 23.316002 2.239136
-0.916173 3.663013 0.260281
-1.635475 14.652934 0.685941
-3.535625 14.127782 0.337311
-1.500581 13.464046 0.000000
-3.485218 13.947165 -0.332961
-1.397057 12.553722 -0.587419
nan nan nan
-0.933199 8.405554 -0.770936
-1.785671 7.150924 -0.852653
-0.693626 6.262379 -0.881712
-1.301812 5.208380 -0.934721
-0.382003 3.489541 -0.994610
-1.039960 4.156731 -0.973371
-0.324918 2.988945 -1.022061
-0.640836 2.541311 -1.040606
-0.217172 2.050021 -1.071668
-0.566383 2.237619 -1.058129
-0.191195 1.832373 -1.083866
-0.416029 1.617541 -1.098473
-0.149624 1.473120 -1.093062
-0.340752 1.305860 -1.101234
-0.120080 1.229950 -1.124195
-0.287699 1.084232 -1.129464
-0.093934 1.000533 -1.121061
-0.238031 0.882571 -1.121382
-0.077355 0.848317 -1.112181
-1.026413 4.124112 1.124685
-1.402583 13.016976 3.021744
-1.029157 4.153519 0.818847
-2.380413 22.034533 3.465126
-0.916285 3.712869 0.462591
-2.517804 23.307621 2.237471
-0.898595 3.646820 0.258893
-1.584584 14.661038 0.686057
-3.499460 14.193421 0.338587
-1.450627 13.441860 0.000000
-3.426946 13.920418 -0.332032
-1.352961 12.556041 -0.587302
-2.463341 10.009137 -0.711147
-0.903322 8.403810 -0.770480
-1.760104 7.154702 -0.852364
-0.671499 6.262301 -0.881364
-1.283034 5.210502 -0.934289
-0.369569 3.488463 -0.993922
-1.024859 4.157970 -0.972813
-0.314237 2.987710 -1.021248
-0.631961 2.543532 -1.040606
-0.210014 2.050766 -1.071668
-0.558569 2.239582 -1.058129
-0.184797 1.833029 -1.083866
-0.410380 1.618983 -1.098473
-0.144481 1.473633 -1.093062
-0.336192 1.307042 -1.101234
-0.115786 1.230361 -1.124195
-0.283913 1.085229 -1.129464
-0.090441 1.000855 -1.121061
-0.234949 0.883397 -1.121382
-0.074393 0.848582 -1.112181
-1.015470 4.141744 1.128552
nan nan nan
-1.022237 4.188083 0.825003
-2.303227 22.040251 3.464739
-0.902144 3.711223 0.461985
-2.434879 23.301416 2.236044
-1.079321 4.444750 0.315808
-1.468832 14.048017 0.657059
nan nan nan
-1.402661 13.436896 0.000000
nan nan nan
-1.309124 12.560686 -0.587302
-2.427799 10.015251 -0.710974
-0.873211 8.399483 -0.769797
-1.734533 7.158389 -0.852076
-0.649381 6.262144 -0.881015
-1.264256 5.212556 -0.933858
-0.357146 3.487340 -0.993234
-1.010339 4.161522 -0.972813
-0.303806 2.988788 -1.021248
-0.622525 2.543470 -1.039673
-0.202855 2.051487 -1.071668
-0.550205 2.239318 -1.057074
-0.178398 1.833663 -1.083866
-0.404220 1.618393 -1.097079
-0.139336 1.474128 -1.093062
-0.331153 1.306350 -1.099629
-0.111491 1.230758 -1.124195
-0.279685 1.084536 -1.127663
-0.086947 1.001164 -1.121061
-0.231864 0.884212 -1.121382
-0.071430 0.848836 -1.112181
-1.007827 4.173435 1.136286
nan nan nan
-1.016238 4.227422 0.832107
-2.226279 22.048157 3.464739
-0.888604 3.711936 0.461682
-2.352028 23.294916 2.234617
nan nan nan
nan nan nan
-3.456717 14.453283 0.344216
-1.342724 13.312365 0.000000
nan nan nan
-1.264522 12.557724 -0.586953
-2.392825 10.023664 -0.710974
-0.843142 8.395048 -0.769113
-1.708958 7.161985 -0.851787
-0.627272 6.261909 -0.880667
-1.246053 5.216937 -0.933858
-0.344736 3.486174 -0.992546
-0.995806 4.165023 -0.972813
-0.293372 2.989830 -1.021248
-0.613643 2.545628 -1.039673
-0.195692 2.052182 -1.071668
-0.542385 2.241225 -1.057074
-0.171799 1.832140 -1.082580
-0.398569 1.619795 -1.097079
-0.134190 1.474606 -1.093062
-0.326591 1.307498 -1.099629
-0.107194 1.231140 -1.124195
-0.275898 1.085506 -1.127663
-0.083451 1.001462 -1.121061
-0.228385 0.883523 -1.119415
-0.068467 0.849080 -1.112181
-0.996054 4.188676 1.139509
nan nan nan
-1.006010 4.250051 0.835896
-2.147627 22.038584 3.462031
-0.875642 3.715016 0.461682
-2.269253 23.288124 2.233189
-5.553474 23.540306 1.680374
-1.303459 13.366949 0.624684
-3.441214 14.613654 0.347756
-1.281015 13.160209 0.000000
nan nan nan
-1.220197 12.557091 -0.586720
-2.354965 10.019817 -0.710111
-0.813114 8.390506 -0.768429
-1.683379 7.165490 -0.851498
-0.605411 6.264060 -0.880667
-1.227270 5.218858 -0.933426
-0.332565 3.487356 -0.992546
-0.981261 4.168474 -0.972813
-0.282933 2.990836 -1.021248
-0.604216 2.545498 -1.038740
-0.188528 2.052853 -1.071668
-0.534558 2.243104 -1.057074
-0.165402 1.832728 -1.082580
-0.393404 1.623192 -1.098473
-0.129041 1.475065 -1.093062
-0.322025 1.308630 -1.099629
-0.102748 1.229687 -1.122487
-0.272107 1.086462 -1.127663
-0.079955 1.001747 -1.121061
-0.225299 0.884315 -1.119415
-0.065611 0.850790 -1.114196
-0.989892 4.224877 1.148532
nan nan nan
-0.991911 4.253363 0.835896
-2.074302 22.043127 3.461645
-0.864443 3.722733 0.462288
-2.190850 23.283129 2.232000
-5.469733 23.534300 1.678639
-1.262163 13.403521 0.626198
-3.385664 14.606101 0.347291
-1.237133 13.161895 0.000000
nan nan nan
-1.178078 12.556097 -0.586487
-2.321162 10.025143 -0.709938
-0.783359 8.388335 -0.767974
-1.658487 7.166194 -0.850921
-0.583313 6.263671 -0.880319
-1.209957 5.222899 -0.933426
-0.320390 3.488496 -0.992546
-0.967433 4.171705 -0.972813
-0.272492 2.991806 -1.021248
-0.595771 2.547488 -1.038740
-0.181361 2.053499 -1.071668
-0.527117 2.244865 -1.057074
-0.159004 1.833294 -1.082580
-0.388019 1.624488 -1.098473
-0.123892 1.475507 -1.093062
-0.317683 1.309691 -1.099629
-0.098455 1.230039 -1.122487
-0.268733 1.089087 -1.129464
-0.076458 1.002020 -1.121061
-0.222211 0.885096 -1.119415
-0.062790 0.851003 -1.114196
-0.982557 4.263779 1.158200
nan nan nan
-0.980716 4.276109 0.839685
-1.989053 22.001383 3.453909
-0.851347 3.728295 0.462591
-2.104379 23.278612 2.230811
-5.376212 23.522583 1.676383
-1.215948 13.440389 0.627712
nan nan nan
-1.189109 13.168832 0.000000
-3.164040 13.892817 -0.330001
-1.131602 12.555356 -0.586254
-2.282740 10.026288 -0.709421
-0.752166 8.386191 -0.767518
-1.631658 7.169804 -0.850632
-0.560131 6.263301 -0.879970
-1.190258 5.224898 -0.932994
-0.307601 3.489646 -0.992546
-0.951593 4.172847 -0.972255
-0.261320 2.990429 -1.020435
-0.586430 2.549654 -1.038740
-0.173833 2.054150 -1.071668
-0.518885 2.246782 -1.057074
-0.152283 1.833865 -1.082580
-0.382063 1.625899 -1.098473
-0.118483 1.475951 -1.093062
-0.312881 1.310847 -1.099629
-0.093946 1.230391 -1.122487
-0.264739 1.090065 -1.129464
-0.072785 1.002293 -1.121061
-0.218966 0.885905 -1.119415
-0.059768 0.852704 -1.116211
-0.963919 4.250695 1.153688
nan nan nan
-0.971743 4.305842 0.844894
-1.909252 21.973742 3.448494
-0.843783 3.755453 0.465620
-2.021818 23.270941 2.229383
-5.289690 23.521742 1.674995
-1.173128 13.491823 0.629924
-5.293911 23.578903 0.560251
-1.150684 13.260076 0.000000
-3.119901 13.923287 -0.330466
-1.087130 12.551764 -0.585905
-2.246636 10.029327 -0.709075
-0.724138 8.386159 -0.767290
-1.605534 7.170609 -0.850055
-0.539147 6.262658 -0.879622
-1.171473 5.226618 -0.932563
-0.296028 3.490648 -0.992546
-0.937021 4.176144 -0.972255
-0.251402 2.991279 -1.020435
-0.577527 2.551686 -1.038740
-0.167020 2.054715 -1.071668
-0.511039 2.248579 -1.057074
-0.146201 1.834360 -1.082580
-0.376385 1.627223 -1.098473
-0.113588 1.476336 -1.093062
-0.308303 1.311931 -1.099629
-0.089736 1.228875 -1.120778
-0.261123 1.090937 -1.129464
-0.069461 1.002529 -1.121061
-0.216027 0.886626 -1.119415
-0.056792 0.852908 -1.116211
-2.684534 12.011664 3.274798
-0.191916 2.287135 0.523070
nan nan nan
-1.830283 21.953199 3.444240
-0.818853 3.705075 0.458956
-1.939542 23.265455 2.228194
-5.201623 23.513277 1.673086
nan nan nan
-5.207798 23.580156 0.559844
-1.122194 13.478273 0.000000
-3.069665 13.926771 -0.330292
-1.042897 12.550505 -0.585672
-2.210539 10.032238 -0.708730
-0.694656 8.386154 -0.767062
-1.579960 7.173745 -0.849766
-0.517080 6.262034 -0.879274
-1.152690 5.228271 -0.932131
-0.283841 3.491659 -0.992546
-0.921911 4.177010 -0.971697
-0.240959 2.992139 -1.020435
-0.569122 2.555949 -1.039673
-0.159847 2.055285 -1.071668
-0.503187 2.250349 -1.057074
-0.139637 1.832721 -1.081295
-0.370703 1.628526 -1.098473
-0.108434 1.476723 -1.093062
-0.303722 1.312999 -1.099629
-0.085446 1.229181 -1.120778
-0.257313 1.091842 -1.129464
-0.065961 1.002766 -1.121061
-0.212930 0.887375 -1.119415
-0.053814 0.853101 -1.116211
-2.644146 12.028039 3.276732
-0.184124 2.290219 0.523634
-4.815821 22.006826 4.339555
-1.752463 21.944683 3.441919
-0.810672 3.729732 0.461682
-1.857329 23.259678 2.227005
-5.114211 23.506922 1.671351
-1.158922 14.502905 0.676857
nan nan nan
-1.092592 13.701415 0.000000
-3.017854 13.922747 -0.329943
-0.998686 12.549089 -0.585439
-2.172863 10.027706 -0.707867
-0.664986 8.383565 -0.766606
-1.554382 7.176789 -0.849478
-0.495024 6.261333 -0.878925
-1.133387 5.227450 -0.931268
-0.271651 3.492629 -0.992546
-0.906807 4.177821 -0.971139
-0.230513 2.992961 -1.020435
-0.560197 2.557920 -1.039673
-0.152672 2.055831 -1.071668
-0.494840 2.249879 -1.056019
-0.133239 1.833197 -1.081295
-0.364559 1.627786 -1.097079
-0.103414 1.479082 -1.094570
-0.299566 1.315919 -1.101234
-0.081155 1.229472 -1.120778
-0.253104 1.091046 -1.127663
-0.062460 1.002990 -1.121061
-0.209472 0.886613 -1.117448
-0.050753 0.851806 -1.114196
-2.618492 12.112743 3.297356
-0.176313 2.293276 0.524197
-4.733290 21.997105 4.334346
-1.675663 21.948200 3.441532
nan nan nan
-1.775370 23.256094 2.226053
-5.026906 23.500244 1.669616
-1.105252 14.467021 0.674994
-2.847727 13.340671 0.315899
-1.048551 13.755000 0.000000
-2.912930 13.669207 -0.323676
-0.954497 12.547520 -0.585206
-2.136286 10.027912 -0.707349
-0.635531 8.383352 -0.766379
-1.528803 7.179743 -0.849189
-0.472979 6.260554 -0.878577
-1.114104 5.226558 -0.930405
-0.259458 3.493556 -0.992546
-0.891708 4.178578 -0.970580
-0.220065 2.993748 -1.020435
-0.551265 2.559860 -1.039673
-0.145495 2.056351 -1.071668
-0.486983 2.251593 -1.056019
-0.126694 1.831512 -1.080009
-0.358875 1.629049 -1.097079
-0.098250 1.479434 -1.094570
-0.294971 1.316957 -1.101234
-0.076973 1.231570 -1.122487
-0.249294 1.091923 -1.127663
-0.059050 1.004835 -1.122952
-0.206375 0.887338 -1.117448
-0.047779 0.851978 -1.114196
-2.591776 12.195050 3.317336
-0.174285 2.376473 0.543361
-4.653428 21.999084 4.331504
-1.599219 21.956381 3.441919
nan nan nan
-1.693277 23.249741 2.224864
-4.939710 23.493240 1.667880
-0.998949 13.703652 0.639125
nan nan nan
-0.990761 13.623932 0.000000
-2.809302 13.412661 -0.317351
-0.910151 12.543302 -0.584857
-2.098710 10.023103 -0.706485
-0.605906 8.380553 -0.765923
-1.503223 7.182605 -0.848901
-0.450769 6.257228 -0.877880
-1.095347 5.228005 -0.929974
-0.247094 3.492043 -0.991859
-0.876615 4.179281 -0.970022
-0.209613 2.994498 -1.020435
-0.541843 2.559501 -1.038740
-0.138170 2.054641 -1.070500
-0.479121 2.253279 -1.056019
-0.120300 1.831943 -1.080009
-0.352743 1.628264 -1.095685
-0.093086 1.479768 -1.094570
-0.290372 1.317978 -1.101234
-0.072673 1.231831 -1.122487
-0.245096 1.091096 -1.125861
-0.055542 1.005035 -1.122952
-0.203277 0.888053 -1.117448
-0.044805 0.852139 -1.114196
-2.547214 12.194566 3.314758
-0.170507 2.442674 0.558580
-4.573110 21.998371 4.328189
-1.523079 21.969221 3.443079
-4.617275 22.308208 2.776757
-1.611423 23.245579 2.223912
-4.852624 23.485918 1.666145
-0.947142 13.649755 0.636446
-2.775738 13.463033 0.318336
-0.939237 13.569943 0.000000
-2.748851 13.356292 -0.315785
-0.866018 12.541421 -0.584624
-2.062200 10.023040 -0.705967
-0.576308 8.377649 -0.765467
-1.477640 7.185377 -0.848612
-0.428756 6.256294 -0.877532
-1.076594 5.229385 -0.929542
-0.234743 3.490486 -0.991171
-0.861528 4.179928 -0.969464
-0.199314 2.997570 -1.021248
-0.532905 2.561377 -1.038740
-0.130997 2.055111 -1.070500
-0.471252 2.254938 -1.056019
-0.113775 1.830212 -1.078723
-0.347057 1.629486 -1.095685
-0.087920 1.480084 -1.094570
-0.285770 1.318984 -1.101234
-0.068373 1.232077 -1.122487
-0.241286 1.091945 -1.125861
-0.052033 1.005223 -1.122952
-0.200176 0.888758 -1.117448
-0.041830 0.852291 -1.114196
-2.502687 12.193919 3.312180
-0.165316 2.494293 0.570417
-4.491378 21.990150 4.323453
-1.447030 21.984262 3.444627
-4.539871 22.326622 2.777060
-1.529618 23.241127 2.222961
-4.766146 23.480717 1.664583
-0.896214 13.603141 0.634117
-2.721278 13.435896 0.317466
-0.889411 13.535720 0.000000
-2.692793 13.319262 -0.314682
-0.821910 12.539383 -0.584391
-2.026211 10.025288 -0.705622
-0.546738 8.374641 -0.765011
-1.451565 7.185623 -0.848035
-0.406755 6.255282 -0.877183
-1.057844 5.230699 -0.929111
-0.222406 3.488885 -0.990483
-0.846932 4.182910 -0.969464
-0.188849 2.998248 -1.021248
-0.523495 2.560949 -1.037807
-0.123823 2.055556 -1.070500
-0.463378 2.256569 -1.056019
-0.107385 1.830598 -1.078723
-0.341367 1.630687 -1.095685
-0.082645 1.478391 -1.093062
-0.281164 1.319973 -1.101234
-0.064072 1.232308 -1.122487
-0.237473 1.092780 -1.125861
-0.048524 1.005398 -1.122952
-0.197072 0.889451 -1.117448
-0.038917 0.853910 -1.116211
nan nan nan
-0.158099 2.511844 0.574362
-4.414563 21.985670 4.319664
-1.373966 21.986475 3.444240
-4.465322 22.339121 2.776757
-1.455975 23.235884 2.222009
-4.682884 23.469490 1.662675
nan nan nan
-2.679639 13.459555 0.317814
-0.842036 13.498672 0.000000
-2.704618 13.597289 -0.321065
-0.780014 12.537055 -0.584158
-1.993732 10.026712 -0.705277
-0.518657 8.371438 -0.764555
-1.428498 7.187712 -0.847746
-0.386010 6.256597 -0.877183
-1.040924 5.231581 -0.928679
-0.210835 3.489604 -0.990483
-0.833309 4.183160 -0.968906
-0.178906 2.998857 -1.021248
-0.515447 2.562581 -1.037807
-0.117005 2.055955 -1.070500
-0.456738 2.260234 -1.057074
-0.101430 1.833084 -1.080009
-0.336665 1.633783 -1.097079
-0.077994 1.478644 -1.093062
-0.277016 1.320850 -1.101234
-0.060200 1.232503 -1.122487
-0.233848 1.093562 -1.125861
-0.045296 1.003911 -1.121061
-0.194611 0.891572 -1.119415
-0.036234 0.854028 -1.116211
-2.654158 13.392963 3.633795
-0.150327 2.529402 0.578308
-4.333991 21.981678 4.315876
-1.296049 21.971413 3.441146
-4.392577 22.381355 2.780089
-1.370216 23.231127 2.221058
-4.598533 23.473455 1.661807
nan nan nan
-2.635519 13.483542 0.318162
nan nan nan
-2.707458 13.876940 -0.327448
-0.735955 12.534715 -0.583925
-1.956491 10.031505 -0.705104
-0.489287 8.370713 -0.764328
-1.401192 7.188025 -0.847169
-0.364025 6.255434 -0.876835
-1.021270 5.232945 -0.928248
-0.198518 3.487918 -0.989795
-0.817972 4.186186 -0.968906
-0.168306 2.997103 -1.020435
-0.505599 2.562178 -1.036873
-0.109828 2.056351 -1.070500
-0.448451 2.261893 -1.057074
-0.095030 1.833427 -1.080009
-0.330674 1.635006 -1.097079
-0.072580 1.478919 -1.093062
-0.272173 1.321856 -1.101234
-0.055682 1.232716 -1.122487
-0.230029 1.094372 -1.125861
-0.041616 1.004071 -1.121061
-0.191342 0.892279 -1.119415
-0.033104 0.854155 -1.116211
-2.615702 13.444824 3.645396
-0.137214 2.452088 0.560271
-4.253500 21.977394 4.312087
-1.217844 21.948675 3.436891
-4.315833 22.403862 2.780998
-1.288703 23.228313 2.220344
-4.511384 23.462427 1.659898
-0.766587 13.801151 0.642968
-2.598334 13.544204 0.319380
nan nan nan
-2.654297 13.861759 -0.326868
-0.692059 12.534713 -0.583809
-1.920524 10.033374 -0.704759
-0.459793 8.367398 -0.763872
-1.375158 7.187994 -0.846591
-0.342053 6.254195 -0.876487
-1.002533 5.234059 -0.927816
-0.186342 3.488590 -0.989795
-0.803354 4.189016 -0.968906
-0.157843 2.997673 -1.020435
-0.496653 2.563928 -1.036873
-0.102649 2.056722 -1.070500
-0.440553 2.263445 -1.057074
-0.088630 1.833748 -1.080009
-0.324965 1.636151 -1.097079
-0.067417 1.479163 -1.093062
-0.267557 1.322798 -1.101234
-0.051379 1.232902 -1.122487
-0.226208 1.095168 -1.125861
-0.038054 1.002575 -1.119170
-0.188226 0.892941 -1.119415
-0.030075 0.852786 -1.114196
-2.578819 13.493757 3.656353
-0.128956 2.450097 0.559707
-4.177386 21.974497 4.308772
-1.143769 21.927927 3.433023
-4.244286 22.432680 2.782816
-1.211151 23.222519 2.219393
-4.428462 23.450300 1.657990
-1.216758 23.330351 1.087839
-2.549189 13.543367 0.319148
-1.217238 23.418295 0.000000
nan nan nan
-0.650353 12.534447 -0.583692
-1.886319 10.034785 -0.704414
-0.430456 8.366466 -0.763644
-1.350396 7.187634 -0.846014
-0.320094 6.252878 -0.876138
-0.984714 5.234935 -0.927384
-0.174045 3.486819 -0.989107
-0.789006 4.189263 -0.968348
-0.147378 2.998205 -1.020435
-0.488148 2.565560 -1.036873
-0.095470 2.057068 -1.070500
-0.433044 2.264893 -1.057074
-0.082229 1.834046 -1.080009
-0.319538 1.637219 -1.097079
-0.062253 1.479390 -1.093062
-0.262791 1.321800 -1.099629
-0.047075 1.233074 -1.122487
-0.222384 1.095951 -1.125861
-0.034554 1.002702 -1.119170
-0.185108 0.893593 -1.119415
-0.027247 0.852881 -1.114196
-2.530680 13.510240 3.658287
-0.121728 2.487046 0.568162
-4.093219 21.970358 4.304983
-1.062317 21.909769 3.429542
-4.164300 22.460287 2.784330
-1.125667 23.219343 2.218679
-4.306158 23.270191 1.644108
-1.130878 23.327169 1.087490
-2.478661 13.439560 0.316479
-1.130916 23.412609 0.000000
nan nan nan
-0.604288 12.534252 -0.583576
-1.848622 10.036726 -0.704068
-0.399670 8.365499 -0.763416
-1.323592 7.190093 -0.845725
-0.297174 6.254009 -0.876138
-0.965073 5.236087 -0.926953
-0.161264 3.487434 -0.989107
-0.773646 4.192127 -0.968348
-0.136283 2.996363 -1.019622
-0.478741 2.567332 -1.036873
-0.087929 2.057404 -1.070500
-0.424740 2.266465 -1.057074
-0.075591 1.836478 -1.081295
-0.313535 1.638379 -1.097079
-0.056831 1.479608 -1.093062
-0.257945 1.322754 -1.099629
-0.042555 1.233239 -1.122487
-0.218365 1.096758 -1.125861
-0.030833 1.001186 -1.117280
-0.181832 0.894265 -1.119415
-0.024084 0.851496 -1.112181
-2.482194 13.511866 3.656353
-0.116296 2.560452 0.585072
-4.013413 21.967606 4.301668
-0.985389 21.903475 3.427995
-4.087650 22.484453 2.785542
-1.044275 23.215673 2.217965
-4.221786 23.267906 1.642893
-1.048996 23.320995 1.087024
-2.414919 13.341957 0.313984
nan nan nan
-2.408928 13.335421 -0.313812
-0.560538 12.536284 -0.583576
-1.812688 10.038209 -0.703723
-0.371817 8.364291 -0.763188
-1.297602 7.189782 -0.845148
-0.276325 6.252488 -0.875790
-0.946351 5.237001 -0.926521
-0.149698 3.487949 -0.989107
-0.758573 4.192404 -0.967790
-0.126346 2.996799 -1.019622
-0.469777 2.568988 -1.036873
-0.081022 2.055475 -1.069331
-0.416826 2.267934 -1.057074
-0.069501 1.836718 -1.081295
-0.307814 1.639464 -1.097079
-0.051990 1.481781 -1.094570
-0.253326 1.323646 -1.099629
-0.038465 1.233373 -1.122487
-0.214727 1.097476 -1.125861
-0.027513 1.001283 -1.117280
-0.178865 0.894863 -1.119415
-0.021112 0.851575 -1.112181
nan nan nan
-0.108157 2.580311 0.589581
-3.934109 21.966984 4.298826
-0.909027 21.909248 3.428382
-4.012189 22.515684 2.787663
-0.962922 23.211718 2.217252
-4.139228 23.275133 1.642373
-0.967274 23.317030 1.086675
-2.365710 13.335541 0.313636
-0.540935 13.071220 0.000000
-2.354077 13.296989 -0.312709
-0.516672 12.535669 -0.583459
-1.776767 10.039564 -0.703378
-0.342517 8.363051 -0.762960
-1.272064 7.191823 -0.844859
-0.254398 6.250940 -0.875442
-0.927634 5.237848 -0.926090
-0.137522 3.488451 -0.989107
-0.743934 4.195026 -0.967790
-0.115795 2.994859 -1.018809
-0.461218 2.572895 -1.037807
-0.073846 2.055746 -1.069331
-0.408907 2.269375 -1.057074
-0.063089 1.836950 -1.081295
-0.302089 1.640528 -1.097079
-0.046818 1.481954 -1.094570
-0.248704 1.324522 -1.099629
-0.034160 1.233500 -1.122487
-0.210895 1.098219 -1.125861
-0.024052 1.003008 -1.119170
-0.175741 0.895482 -1.119415
-0.018139 0.851643 -1.112181
nan nan nan
